# .PCD v0.7 - Point Cloud Data file format
VERSION 0.7
FIELDS x y z
SIZE 4 4 4
TYPE F F F
COUNT 1 1 1
WIDTH 1400
HEIGHT 1
VIEWPOINT 0 0 0 1 0 0 0
POINTS 1400
DATA ascii
0.65597856 0.16172235 0.07641305
0.66339099 0.16078362 0.075583115
0.67108905 0.16035923 0.074666679
0.67830378 0.16003546 0.073784195
0.68548304 0.16032624 0.072833918
0.6929884 0.16060749 0.071848549
0.70037699 0.16011025 0.07094305
0.70732611 0.16030899 0.070066236
0.71575773 0.16072789 0.068909839
0.72538263 0.15901893 0.06788893
0.72848678 0.15924489 0.067456879
0.5847258 0.17131628 0.085383132
0.58916134 0.16932471 0.084798798
0.59617287 0.16893733 0.083856136
0.60400975 0.16863059 0.082803771
0.61146331 0.16886452 0.081812277
0.61934894 0.1681239 0.080777444
0.625597 0.16878574 0.079911329
0.63364887 0.1691635 0.078847222
0.64155018 0.1688479 0.077827245
0.6486128 0.1688039 0.076918468
0.65607882 0.16880335 0.075945295
0.66287476 0.16780734 0.07514447
0.6698733 0.16844586 0.074147321
0.67787492 0.16844855 0.073075406
0.68512827 0.16804071 0.072111301
0.69286585 0.16841936 0.071037263
0.7007072 0.16766292 0.070063651
0.70740294 0.16844147 0.06905169
0.7120688 0.16851956 0.068419136
0.58304662 0.17650294 0.085632533
0.5885222 0.17625265 0.08485952
0.59557593 0.17579371 0.083858185
0.60401762 0.17523061 0.082688086
0.61117738 0.17642522 0.081629917
0.61906052 0.17635301 0.080513239
0.62591475 0.17623974 0.079562612
0.63468534 0.17672022 0.078288332
0.6409055 0.17647326 0.077447429
0.64837563 0.17612514 0.076443709
0.65542519 0.17588668 0.075491071
0.66286451 0.17574401 0.074474841
0.67073202 0.17531058 0.073419288
0.67780453 0.17574601 0.072366558
0.6856342 0.17499113 0.071312711
0.69210684 0.17563647 0.070308417
0.70018166 0.17583293 0.06911432
0.70835006 0.17497596 0.068062983
0.58887553 0.1823782 0.084750369
0.59636831 0.18323115 0.083625682
0.60437429 0.18416944 0.082388751
0.61146712 0.18406357 0.081313968
0.61892021 0.18472622 0.08017341
0.62611979 0.18378843 0.079142325
0.63412631 0.18425864 0.077914484
0.64022636 0.18383285 0.077041455
0.64837658 0.1833642 0.0758911
0.65573144 0.18300216 0.074851133
0.66309208 0.18378164 0.073688678
0.6708284 0.1830896 0.072613321
0.67707193 0.18297189 0.071686886
0.68567187 0.18286347 0.070382819
0.6930421 0.18383847 0.069123179
0.70018178 0.18262222 0.06821724
0.70636356 0.18026759 0.067619465
0.5833832 0.19253232 0.085416406
0.58974797 0.19157043 0.084449902
0.59702241 0.19263251 0.083256662
0.6042034 0.19159399 0.082151666
0.61174095 0.19180629 0.08093819
0.6184026 0.19198094 0.079862669
0.626288 0.19121194 0.078673325
0.63411522 0.19152224 0.077422142
0.64100975 0.19057077 0.076422088
0.64858782 0.19155592 0.075157925
0.65597272 0.19067928 0.074088715
0.66338766 0.19075815 0.072925463
0.6706658 0.19062987 0.071797088
0.67770308 0.19086166 0.070650086
0.68533152 0.18973778 0.069554247
0.69100261 0.19046791 0.068535641
0.69687617 0.1886701 0.067856647
0.57751447 0.20048551 0.086195722
0.58244145 0.19995411 0.085397258
0.58920306 0.20019206 0.084277406
0.59758586 0.20001635 0.082875997
0.60410386 0.19965942 0.081800863
0.61213648 0.19917168 0.080489039
0.61871147 0.19931485 0.079366237
0.62584883 0.19866931 0.078224964
0.63378173 0.19813754 0.076958649
0.64081281 0.19838198 0.075775102
0.64835101 0.19906086 0.074467786
0.65586299 0.19828832 0.07332509
0.6636306 0.19791462 0.072088823
0.67006075 0.19834024 0.07097403
0.67718393 0.19807142 0.069791533
0.68496644 0.19733453 0.068565808
0.68996006 0.19460602 0.068121202
0.5765816 0.20789689 0.086160637
0.58191508 0.20743997 0.085244961
0.58965206 0.20718685 0.083910093
0.59736323 0.20705286 0.082560159
0.60408652 0.20660625 0.081412822
0.61136371 0.20620446 0.080161713
0.6182673 0.2056751 0.079004608
0.62590951 0.20656542 0.077583797
0.63362032 0.20576264 0.076318532
0.64039564 0.20605774 0.075092375
0.64850938 0.20567749 0.073752165
0.65588039 0.20631085 0.072405219
0.66274828 0.20540957 0.071316652
0.67044371 0.20594074 0.069884665
0.6753273 0.20343877 0.069377221
0.5756256 0.21404056 0.086106084
0.5818041 0.21435919 0.084975228
0.58842915 0.21411394 0.083778381
0.59684384 0.21474583 0.082195707
0.60433465 0.21317784 0.080935232
0.61167836 0.21414818 0.079515494
0.61844236 0.21336694 0.078334317
0.62600005 0.21323164 0.076964028
0.63309091 0.21331607 0.075653695
0.64080274 0.21316838 0.074267142
0.64841574 0.2128576 0.072935
0.6553719 0.21360691 0.071571201
0.6620999 0.21324894 0.070377149
0.66761309 0.21020101 0.069806524
0.57415223 0.2209726 0.086079739
0.58157498 0.22155361 0.084648699
0.58999252 0.22118811 0.083070211
0.59673947 0.22116996 0.081774369
0.6042217 0.22094084 0.08036346
0.61174726 0.22129704 0.078900605
0.61836457 0.22098066 0.077651262
0.62519604 0.22103749 0.076342367
0.63307321 0.22053778 0.074894071
0.6405099 0.22121434 0.073373429
0.64731342 0.21982567 0.072259285
0.65535581 0.22099766 0.070560962
0.66302687 0.21992663 0.069241591
0.56823051 0.22909251 0.086798564
0.57395995 0.22814159 0.085743137
0.58206153 0.22804046 0.084172353
0.58978534 0.22891876 0.082563639
0.59671152 0.22827293 0.081231944
0.60431957 0.22841726 0.079707399
0.61063951 0.22829519 0.078474037
0.61829478 0.22832619 0.076945215
0.62551785 0.22827367 0.075498015
0.63314939 0.22830647 0.073969893
0.64026749 0.22812983 0.072545476
0.64785755 0.22843479 0.070967376
0.65562481 0.22798359 0.069478184
0.66094977 0.22512947 0.068851896
0.56004626 0.23598364 0.088008069
0.56800002 0.23601656 0.086452931
0.57538891 0.23752931 0.084860563
0.58228815 0.23716025 0.08347398
0.58957905 0.23732257 0.081954069
0.59669709 0.23649485 0.080526523
0.60291535 0.23658785 0.079222299
0.61024088 0.2361477 0.077750616
0.61785561 0.23666386 0.076088831
0.62564081 0.23597305 0.074546531
0.63280529 0.23600227 0.073025003
0.64078331 0.23601198 0.071327843
0.64731032 0.23438001 0.070190988
0.65169978 0.23327942 0.069445319
0.55935448 0.24335758 0.087733604
0.56672716 0.24493197 0.086135834
0.57481974 0.24603525 0.084351897
0.58230263 0.24413159 0.082909688
0.58893299 0.2450901 0.081384107
0.59541798 0.24374865 0.080109447
0.6036042 0.24386983 0.078312241
0.61092788 0.24308859 0.076808855
0.61746883 0.244031 0.07525447
0.62564939 0.24292319 0.073606923
0.63176495 0.2430682 0.072229885
0.64022481 0.2415241 0.070611686
0.64509851 0.23935886 0.069885731
0.55417365 0.25355926 0.088116795
0.55953211 0.25376856 0.086980224
0.56731504 0.2531018 0.085389048
0.57550216 0.25237623 0.0836588
0.58204818 0.25217557 0.082207598
0.58899397 0.25203225 0.080673814
0.59630692 0.25148693 0.079070047
0.60373747 0.2507627 0.077453122
0.61096394 0.25079238 0.075808778
0.61767018 0.25075591 0.07428129
0.62547308 0.24945176 0.072684504
0.63044453 0.25015533 0.071446709
0.5522362 0.26064354 0.087953664
0.5599975 0.26054758 0.086301818
0.56734145 0.25998804 0.084745102
0.57460779 0.25969175 0.083138749
0.58143365 0.25978205 0.081553444
0.58916336 0.25865063 0.079885766
0.59602726 0.25878188 0.078242421
0.60301435 0.25808981 0.076662615
0.61039275 0.25783825 0.074958101
0.61797488 0.25842187 0.073073782
0.62445682 0.25847423 0.071519338
0.54723346 0.26745397 0.088399187
0.55383438 0.26799476 0.086942971
0.56137913 0.26729622 0.085337162
0.56784391 0.26754969 0.083826885
0.57447022 0.266554 0.082406715
0.58135694 0.26729327 0.080675662
0.58870572 0.26620436 0.079028875
0.5957405 0.2661199 0.077314109
0.60300761 0.26556015 0.075607158
0.6104573 0.26542222 0.07380306
0.61810225 0.26476055 0.072046481
0.62288326 0.26544979 0.070728898
0.56120753 0.27377772 0.08465267
0.56667387 0.27467743 0.083244257
0.57474977 0.27427298 0.081370354
0.581321 0.27455309 0.079720646
0.58850217 0.27269122 0.078189738
0.59570622 0.27416626 0.076148853
0.60258538 0.27318802 0.074543998
0.61010927 0.27233401 0.072767384
0.61763698 0.27273533 0.070774324
0.55932009 0.28285006 0.08400242
0.56698507 0.2812832 0.082349911
0.57352996 0.28111032 0.080740944
0.58131975 0.28175724 0.078682505
0.58861089 0.28079754 0.076942958
0.59588444 0.28073034 0.075052738
0.60272372 0.28031942 0.073308408
0.60963237 0.28027019 0.071475327
0.55972672 0.28982937 0.082963325
0.56680739 0.28880528 0.081342027
0.5734992 0.28895336 0.079597928
0.58106405 0.2888079 0.077647865
0.58837545 0.28806901 0.075826608
0.5950011 0.28782117 0.074077874
0.60221994 0.28826141 0.072006211
0.60954267 0.28832221 0.069952421
0.6136592 0.28907627 0.06866473
0.54442304 0.29908484 0.085335404
0.55116266 0.29515266 0.084294803
0.55934781 0.29735139 0.081938386
0.56744391 0.29627082 0.080032125
0.5737915 0.29615399 0.078350574
0.58111286 0.29559535 0.076478593
0.58857965 0.29531321 0.07447166
0.59579295 0.29586431 0.072354086
0.60181594 0.29446822 0.070904218
0.53853178 0.30573443 0.085783035
0.54545605 0.30496472 0.084208995
0.55292791 0.3041122 0.082483694
0.55937785 0.30409247 0.080837101
0.56697094 0.30378711 0.078871429
0.57368505 0.30384654 0.077022694
0.57989222 0.30247703 0.075560093
0.58726966 0.30284128 0.073393375
0.5949021 0.30162743 0.071454629
0.5331192 0.31222141 0.08611282
0.53605288 0.31379557 0.085157126
0.54434621 0.31174132 0.083389238
0.55195391 0.31128681 0.081530295
0.55955237 0.31207731 0.079360619
0.56652594 0.31082076 0.077694006
0.57329428 0.31027377 0.075907625
0.58099622 0.3111957 0.073491983
0.58619839 0.30889115 0.072455607
0.59305429 0.30729467 0.070782878
0.53069121 0.31849834 0.085712813
0.53700858 0.32079959 0.083711833
0.54388535 0.31901526 0.082248457
0.55182201 0.31951177 0.080038413
0.55865169 0.31899101 0.078274578
0.56555998 0.31823972 0.076483481
0.57371646 0.31856743 0.074054398
0.58079165 0.31766438 0.072153986
0.52236933 0.32882783 0.085986339
0.52985626 0.32688498 0.084447414
0.53785211 0.32687938 0.082368344
0.54516536 0.32630783 0.080502145
0.55174839 0.32663578 0.078618981
0.55790377 0.32486999 0.077272728
0.56532568 0.32552412 0.074979104
0.57345748 0.32547292 0.07256712
0.57896322 0.32289231 0.071497023
0.516711 0.33803007 0.085681118
0.52280003 0.33465454 0.084789038
0.52976364 0.33458689 0.082983464
0.53724205 0.33453295 0.080990896
0.54428428 0.33367828 0.079230346
0.55000728 0.33325404 0.077696897
0.55780905 0.33291328 0.075505264
0.56525767 0.33328459 0.073180258
0.57061166 0.3310664 0.072082996
0.51001984 0.34491187 0.085964277
0.51513052 0.34256294 0.085164815
0.52243686 0.34219515 0.083349742
0.52971148 0.34175742 0.081500992
0.53698403 0.34254748 0.079276606
0.54264069 0.3406617 0.078130879
0.55035597 0.34081751 0.075833075
0.55778676 0.34042659 0.0736918
0.56369597 0.33903608 0.072237119
0.5010401 0.35081828 0.086980082
0.50680971 0.34941506 0.085854471
0.51467758 0.35029209 0.083648585
0.52268928 0.34999579 0.081557781
0.52931398 0.34940448 0.079852343
0.53573793 0.34872344 0.078167178
0.54284042 0.3484858 0.076153629
0.55018514 0.34801435 0.074063443
0.55625421 0.34520429 0.07294821
0.50075805 0.35727105 0.085691184
0.5078097 0.35701671 0.083957031
0.51473331 0.35732099 0.08202944
0.52187973 0.35699269 0.080132656
0.52871364 0.35685802 0.078203037
0.53624964 0.35588491 0.076227829
0.54345542 0.35469934 0.074363627
0.54855424 0.35602435 0.072407082
0.48512343 0.3666468 0.0874523
0.49204662 0.36477864 0.086195506
0.50063115 0.36477032 0.084037364
0.50712049 0.36408469 0.082492799
0.51449001 0.36407641 0.080468066
0.52056271 0.36245024 0.079145357
0.52870339 0.36367938 0.076428115
0.53604132 0.36306953 0.074367598
0.54235226 0.36152691 0.072834857
0.47850215 0.37430117 0.087306134
0.48558173 0.37283492 0.085971281
0.49291149 0.37263548 0.084176935
0.50133795 0.37199178 0.082115524
0.50675315 0.37176502 0.080681928
0.51359856 0.37058949 0.079047024
0.52043748 0.37031171 0.077122413
0.52808928 0.37161762 0.074417837
0.53315091 0.36872733 0.073667116
0.47139964 0.38056746 0.087542549
0.47743395 0.38057411 0.086117536
0.48582968 0.38007605 0.084181011
0.49247086 0.38019553 0.082421884
0.49940425 0.37964827 0.080664672
0.50583291 0.3784104 0.07917729
0.51301605 0.37855038 0.07704258
0.52083814 0.37762749 0.074930035
0.52747738 0.37668073 0.073136434
0.25273514 0.390708 0.092880942
0.45891109 0.3907313 0.088005394
0.46330896 0.38759646 0.087747253
0.47089335 0.3878867 0.085930355
0.47900343 0.38760495 0.084023781
0.48538348 0.38694406 0.08254981
0.4924342 0.38672701 0.080714725
0.49849904 0.38537249 0.079372264
0.50620884 0.38527772 0.077157952
0.51331639 0.38625684 0.074721888
0.51905346 0.384262 0.073537342
0.4496406 0.39861229 0.088165589
0.45543817 0.39590046 0.087554745
0.4629606 0.39532295 0.085981056
0.46958101 0.39459762 0.084576413
0.47664258 0.39483541 0.082747325
0.48389149 0.39370456 0.081143133
0.49097559 0.39373425 0.079157099
0.49815091 0.39310524 0.077277608
0.50602835 0.39218429 0.075182043
0.51278406 0.39319748 0.072756618
0.44773194 0.40329769 0.087456092
0.45518395 0.40288725 0.085900493
0.46316198 0.40279594 0.084030651
0.46983242 0.40259755 0.082416959
0.47705925 0.40210307 0.080638394
0.48292693 0.40036988 0.079526626
0.49050447 0.40138733 0.077059701
0.49860734 0.40057793 0.074884668
0.50490385 0.39944029 0.073276587
0.44205633 0.41367784 0.086099364
0.44697908 0.40999734 0.085941218
0.45483288 0.41002113 0.084125966
0.46207187 0.40961465 0.082453221
0.46896896 0.40966299 0.080656886
0.47614631 0.40879232 0.078938738
0.48240477 0.40789014 0.077442497
0.49051616 0.40956467 0.074505873
0.49639377 0.40618706 0.073774584
0.19423617 0.41840622 0.082092054
0.44322279 0.41752279 0.084830277
0.4468548 0.41788617 0.083882108
0.45474553 0.41516054 0.082739204
0.46272248 0.4174445 0.080019929
0.46872151 0.415822 0.078900307
0.4756338 0.41518676 0.077152424
0.48287839 0.41546431 0.074910395
0.48931956 0.41484979 0.073134795
0.19159505 0.42354953 0.081566162
0.44342333 0.42259201 0.08338283
0.44506964 0.42602307 0.082010955
0.45438921 0.42456013 0.08009322
0.46133038 0.42340231 0.078579605
0.4677583 0.42290804 0.076958001
0.4752301 0.4227221 0.074841127
0.48168933 0.42143646 0.073293231
0.18437217 0.4310582 0.079871625
0.44211659 0.43431088 0.080328777
0.44701114 0.43102986 0.08004912
0.45334077 0.43121016 0.078332424
0.46043608 0.43030336 0.076660924
0.46814808 0.4305799 0.074333161
0.4748379 0.42942366 0.072704896
0.47983417 0.42695087 0.071975991
0.17633869 0.44002655 0.077817999
0.1815595 0.43780079 0.079066686
0.43181449 0.44124499 0.080828898
0.43967712 0.43849629 0.079687029
0.44628033 0.4376947 0.078173906
0.45304593 0.43872887 0.075982973
0.46038622 0.4373939 0.074327081
0.46580061 0.43765217 0.072612897
0.17085893 0.44668362 0.076284885
0.17720757 0.44588143 0.077750362
0.18287499 0.4460116 0.078960933
0.4179011 0.44974604 0.081599019
0.4241268 0.44620043 0.081200324
0.43126398 0.44711074 0.079168901
0.43774641 0.44548622 0.078019284
0.44551471 0.44557673 0.075832546
0.45322061 0.44493097 0.073838569
0.45940739 0.44450107 0.072140791
0.16370678 0.4523533 0.074268647
0.16872014 0.45332217 0.075397141
0.1763519 0.45319963 0.077111974
0.18340674 0.45363855 0.078576624
0.39637297 0.45754632 0.083895326
0.40137109 0.45579481 0.083407395
0.40984142 0.45412105 0.082112119
0.41683689 0.45422652 0.08050406
0.42314038 0.45299935 0.079382636
0.43109757 0.45361632 0.077150814
0.43846089 0.45293868 0.075387634
0.4460856 0.45320344 0.073096223
0.44993335 0.45286515 0.072036415
0.16410157 0.45976409 0.07389649
0.16769138 0.46107668 0.07463067
0.17636032 0.46050778 0.076576851
0.1839066 0.46101028 0.078063272
0.1911352 0.46109211 0.079441287
0.38696334 0.46422362 0.083742596
0.39430824 0.46250194 0.082875542
0.40110317 0.46160364 0.081776001
0.40857953 0.46116307 0.080282122
0.41614899 0.4610866 0.078535266
0.42364931 0.46053511 0.07683342
0.43080512 0.46025366 0.075027309
0.43782669 0.46020871 0.073071331
0.44369873 0.45679531 0.07253366
0.16302572 0.46528253 0.073233448
0.16820593 0.46838918 0.074147619
0.17596698 0.46801361 0.075836264
0.18415351 0.46800703 0.077465288
0.1918623 0.46923283 0.078779809
0.1995412 0.46830562 0.080219574
0.20308076 0.47063273 0.080542371
0.37280837 0.47247052 0.083797783
0.37908337 0.46951565 0.083604306
0.38671839 0.46949956 0.082265228
0.39411938 0.46967036 0.080774315
0.4019601 0.46848711 0.079480216
0.40914765 0.46853206 0.077832833
0.41634786 0.46832815 0.076114707
0.42318305 0.46789253 0.074489541
0.43049479 0.46516579 0.073425449
0.16983384 0.475034 0.073878303
0.17657918 0.47610858 0.075175613
0.18475857 0.4761228 0.076742284
0.19186765 0.47570595 0.078076683
0.19864009 0.47595292 0.079203084
0.20598067 0.47722587 0.080229893
0.21251176 0.47794554 0.081106886
0.21761775 0.4797956 0.081570521
0.34124976 0.48023555 0.085645825
0.34888351 0.47925764 0.085120328
0.35737672 0.47809428 0.08442957
0.36247951 0.47817177 0.083722554
0.37202743 0.47806081 0.082322933
0.37964621 0.47584617 0.081684873
0.38690153 0.47705773 0.079945661
0.39384633 0.47694644 0.07857921
0.40123153 0.47580269 0.077308618
0.40827289 0.47555065 0.075707555
0.41591561 0.47474274 0.074026719
0.17077263 0.48026678 0.073530361
0.17704135 0.48323423 0.074463956
0.18383178 0.48424962 0.075640872
0.19203693 0.48307091 0.077227861
0.19901299 0.48403758 0.078263558
0.20701645 0.48363003 0.07955797
0.21408151 0.48364773 0.080554858
0.22088408 0.48390108 0.081410222
0.22927074 0.48637709 0.082037754
0.30726919 0.48844326 0.085629933
0.31156787 0.48701277 0.085834228
0.31963736 0.48549584 0.085876293
0.32653829 0.4851968 0.085534379
0.33463693 0.48570752 0.084772691
0.34202927 0.48524913 0.084225379
0.34876525 0.48366416 0.083925664
0.35726228 0.48444295 0.082665786
0.36368763 0.48518246 0.081518874
0.37118685 0.48484343 0.080416821
0.37926903 0.48414502 0.07919839
0.38665864 0.48413411 0.077759534
0.39365843 0.48284411 0.076693207
0.40085679 0.4839983 0.074638724
0.40705439 0.48053187 0.074308708
0.17892142 0.48991206 0.074015722
0.18342352 0.49093887 0.074717507
0.19125767 0.49181941 0.075967118
0.19832174 0.49031404 0.077311173
0.20538585 0.49124977 0.07824555
0.21380328 0.49121267 0.079408877
0.22202349 0.49154752 0.080387272
0.22915731 0.49120581 0.081237406
0.23535077 0.49194145 0.081743576
0.24358942 0.49120533 0.082649484
0.2503404 0.49326089 0.082821332
0.2562758 0.49475011 0.083017752
0.28392562 0.49413845 0.08444988
0.28888533 0.4927555 0.084815353
0.29614264 0.49259841 0.084838398
0.30418846 0.49225381 0.084777445
0.31145829 0.49190056 0.084621631
0.31969252 0.49251491 0.084072292
0.32653597 0.49155995 0.083874598
0.33331168 0.49152997 0.08332628
0.34151891 0.49284193 0.082147479
0.34934199 0.49205497 0.081457876
0.3570376 0.4915517 0.08056993
0.36421624 0.49205443 0.079320885
0.37081593 0.49055389 0.07868845
0.3788929 0.49084827 0.077108212
0.3858583 0.4900389 0.075964101
0.39256781 0.49083498 0.074212156
0.39830515 0.4891144 0.073448263
0.18524723 0.49658719 0.074266925
0.19144765 0.49758691 0.075168572
0.19868897 0.49733979 0.076352149
0.20526782 0.49965966 0.076947019
0.21330844 0.49918902 0.078083657
0.22216989 0.49885479 0.079189286
0.2290113 0.4986628 0.079950392
0.23712732 0.49954018 0.080556802
0.24369542 0.49882242 0.08123333
0.25154117 0.49854726 0.081906475
0.25840846 0.49891505 0.082319222
0.26647368 0.4997001 0.082636438
0.27337158 0.50099802 0.082617171
0.28262007 0.49944568 0.083190694
0.28839502 0.50004274 0.083092302
0.29628971 0.50081688 0.082816876
0.30438936 0.50011176 0.082768969
0.31147769 0.49939725 0.082672864
0.31905293 0.49937385 0.082245544
0.32652125 0.4992936 0.081726022
0.33395711 0.49939618 0.081020631
0.34111315 0.4992443 0.080306672
0.34850305 0.49879935 0.079506651
0.35630566 0.49854946 0.078490734
0.36426732 0.49805444 0.077384785
0.37111753 0.49785957 0.076230057
0.37869862 0.49745196 0.074906968
0.38464582 0.49519733 0.074440561
0.19986074 0.50421506 0.075443946
0.20739082 0.504287 0.076470502
0.21399921 0.50690979 0.076852448
0.22143421 0.50647837 0.077758566
0.22917053 0.50632662 0.078550957
0.23639511 0.50629532 0.079222195
0.24257995 0.50672209 0.079598397
0.25147817 0.50615275 0.080359466
0.25942808 0.50670666 0.080699816
0.26592925 0.50698215 0.080968499
0.27357861 0.50610173 0.081412382
0.28099611 0.50694096 0.081338167
0.28925052 0.5067116 0.081412658
0.29631895 0.50735074 0.081113972
0.30377206 0.50672549 0.081031352
0.31147626 0.50627416 0.080790199
0.31919625 0.50653392 0.080226935
0.32567054 0.5071522 0.079492711
0.33372998 0.50661165 0.078864887
0.34145761 0.50568211 0.078261048
0.34841737 0.50542414 0.07741119
0.35597202 0.50684148 0.075806431
0.36314997 0.50441587 0.075431742
0.37074712 0.50355726 0.074348964
0.2156333 0.51130372 0.076237991
0.22123048 0.51354176 0.076407306
0.22894719 0.51394534 0.077059031
0.23690973 0.51363385 0.077765748
0.24333836 0.51441354 0.078088
0.25108796 0.51410538 0.07865154
0.25847906 0.5138014 0.079058148
0.26647815 0.51352793 0.079408959
0.27359179 0.51385564 0.079505198
0.28102979 0.51388592 0.079580553
0.28885409 0.51383358 0.079504818
0.29636681 0.51370829 0.079369932
0.30386448 0.51408404 0.078961372
0.31159896 0.51380503 0.078606829
0.31873125 0.51345646 0.078188591
0.3265509 0.51381332 0.077360518
0.33462346 0.51333052 0.07662987
0.34154353 0.51299816 0.075859316
0.34835267 0.51306212 0.074870333
0.36129355 0.51022458 0.073734298
0.22428395 0.5188449 0.075634971
0.22707483 0.51798093 0.076065317
0.2355326 0.519889 0.076348342
0.24455214 0.52065992 0.076795079
0.25079986 0.52173966 0.076888949
0.25890771 0.5212965 0.077307068
0.26567507 0.52157265 0.077407978
0.27410007 0.52132493 0.077577345
0.28077072 0.52266377 0.077185772
0.28856745 0.52218127 0.077187918
0.29654983 0.52150214 0.077100724
0.30325499 0.52092266 0.076968364
0.3119328 0.52116215 0.076331638
0.31754738 0.52028364 0.076139562
0.32578197 0.52101171 0.07510519
0.33357421 0.51908612 0.074847311
0.34081745 0.51721811 0.07454212
0.2666437 0.5257532 0.076347612
0.27482608 0.52713627 0.076002166
0.28218174 0.52892113 0.075399525
0.28914925 0.52737468 0.0756694
0.29464385 0.52802837 0.075242303
0.30280238 0.52696806 0.075112894
0.30785483 0.52527064 0.075321674
0.69737768 -0.098608129 0.075132608
0.69798279 -0.10173395 0.075036772
0.69501579 -0.084395483 0.075513929
0.69225723 -0.078334548 0.075626545
0.69276327 -0.070133924 0.075887144
0.55399221 -0.061621826 0.072885804
0.69194764 -0.065419942 0.07600186
0.53216773 -0.05353744 0.073351748
0.53760689 -0.053358786 0.073470131
0.54344714 -0.054084368 0.073481984
0.55236572 -0.053817842 0.073656961
0.55671871 -0.057593957 0.073338859
0.52141917 -0.045104008 0.074160755
0.5303477 -0.047199849 0.074040182
0.53679478 -0.047625754 0.07409367
0.54370737 -0.047589067 0.074189208
0.55080473 -0.048065819 0.074232064
0.68571728 -0.045388028 0.076372005
0.75343406 -0.04821739 0.077412397
0.75903761 -0.048139397 0.077439077
0.5080353 -0.038342714 0.074767001
0.51060218 -0.037151217 0.074948341
0.52388954 -0.040067002 0.074792787
0.52929503 -0.040917553 0.07476183
0.53588289 -0.04003441 0.074919276
0.54385626 -0.040356558 0.07495416
0.54832757 -0.041532815 0.07486698
0.63372189 -0.037616331 0.075840384
0.75508767 -0.044877339 0.077432424
0.50752538 -0.033273537 0.075388886
0.51381463 -0.032298621 0.07557559
0.52148992 -0.032918286 0.075582542
0.52853334 -0.032913297 0.075646535
0.53647107 -0.03263947 0.075728528
0.54311907 -0.033641629 0.075652227
0.55270791 -0.033152398 0.075735375
0.55654192 -0.032049809 0.075856172
0.63594973 -0.032390833 0.076126426
0.65727758 -0.033889767 0.076302066
0.66329241 -0.033590022 0.076378666
0.67119151 -0.031583853 0.076523922
0.67655778 -0.030669445 0.076606862
0.5066812 -0.025478639 0.076338746
0.51365364 -0.025037153 0.076442249
0.52116561 -0.025172601 0.076471791
0.52865994 -0.025102647 0.076508723
0.53674495 -0.025265524 0.076513469
0.54398096 -0.025205137 0.076512203
0.55166435 -0.025457848 0.076479539
0.55852413 -0.024937654 0.076526858
0.57373595 -0.024249177 0.076539554
0.58088285 -0.024557794 0.076484151
0.58824837 -0.022479597 0.076608345
0.60213184 -0.026632922 0.07628911
0.62170988 -0.023471365 0.0764933
0.62468398 -0.022984523 0.076525465
0.63666731 -0.027434194 0.076365188
0.66427124 -0.029449968 0.076518975
0.67140317 -0.027558312 0.076640286
0.67856741 -0.025941985 0.076764517
0.68419904 -0.024119647 0.076863207
0.50675148 -0.018389069 0.077213988
0.51409185 -0.018410295 0.077248037
0.5213539 -0.018410435 0.077251494
0.5295254 -0.017734384 0.077312961
0.53555703 -0.018500015 0.077227898
0.54362994 -0.019151749 0.07712508
0.55150968 -0.018541887 0.077167474
0.55788445 -0.017511627 0.077219628
0.56680948 -0.018441347 0.077080652
0.57438725 -0.017774915 0.077060498
0.58163685 -0.018672613 0.076937117
0.58780986 -0.017277529 0.07697621
0.59692848 -0.021087874 0.076663829
0.6110571 -0.015551126 0.076936066
0.61846167 -0.019483175 0.076711953
0.62331796 -0.018936746 0.076745793
0.6340555 -0.016243178 0.076865293
0.64103693 -0.017076978 0.076836526
0.64839816 -0.015953602 0.076882429
0.65375018 -0.014989329 0.076908417
0.67353237 -0.017509239 0.076930679
0.67761081 -0.019563958 0.076912768
0.68420929 -0.019825296 0.076950148
0.7247842 -0.015546214 0.077241167
0.73018241 -0.017221512 0.077272765
0.73527873 -0.017106539 0.077283941
0.50620133 -0.010909217 0.078139313
0.5134809 -0.010820654 0.078152291
0.5211944 -0.010400377 0.078189291
0.52842933 -0.010160479 0.078167327
0.53607118 -0.010050594 0.078113288
0.54326648 -0.011004459 0.077971511
0.55064386 -0.010424373 0.077952616
0.55881208 -0.010585292 0.07784716
0.56658399 -0.010377523 0.077765517
0.57472712 -0.011049286 0.077588074
0.58229107 -0.0099090207 0.077560961
0.58850098 -0.011427365 0.077372059
0.59590602 -0.010205127 0.077365391
0.60306525 -0.0097184088 0.077336729
0.60892761 -0.011598915 0.07718917
0.62077206 -0.0075832554 0.077324361
0.62855667 -0.01059802 0.077130854
0.63378853 -0.010150725 0.077130444
0.64049315 -0.012060769 0.077038713
0.64787126 -0.012823367 0.076990359
0.65585393 -0.010270141 0.077073075
0.66254056 -0.009360197 0.077111676
0.67031473 -0.0092334906 0.077126294
0.67883736 -0.010136315 0.077117756
0.68278235 -0.010408089 0.077123888
0.70211148 -0.0092720706 0.077180482
0.72472638 -0.012244979 0.077221945
0.7300908 -0.010610018 0.077238768
0.73517203 -0.010497084 0.07724338
0.74886662 -0.010285205 0.077204406
0.50574386 -0.0048601143 0.078885257
0.51434344 -0.0032020218 0.079034604
0.52142531 -0.0031922585 0.079002358
0.52863288 -0.0038204405 0.078857273
0.53608382 -0.0033720422 0.078817241
0.54402018 -0.0031150405 0.078729719
0.55183393 -0.003692898 0.078568175
0.55812454 -0.0036161826 0.078476757
0.56654012 -0.0029824218 0.078366488
0.57315016 -0.0034773119 0.078198977
0.5817908 -0.0030864181 0.078069568
0.58896357 -0.0033967141 0.077923767
0.59479469 -0.0043929699 0.077771984
0.60522997 -0.0069046128 0.077488072
0.60960174 -0.0029106191 0.077677339
0.61850232 -0.0029731854 0.077572279
0.62643874 -0.0031507609 0.07748796
0.63376981 -0.0040809363 0.077386752
0.64146125 -0.0017363923 0.077408686
0.64730102 -3.2619446e-06 0.077443957
0.65656453 -0.0029906672 0.077307202
0.66452241 -0.0043447544 0.077256814
0.67092574 -0.0036525275 0.077261426
0.67840308 -0.0035900595 0.077259563
0.50800627 0.0054927603 0.080090262
0.5141362 0.0031083657 0.079778217
0.52155828 0.003527848 0.079754278
0.52901685 0.0038344841 0.07968168
0.53719288 0.0039693797 0.079550505
0.54369229 0.0041852435 0.079440132
0.55175865 0.0037412606 0.079234831
0.55923086 0.0040226765 0.079107828
0.56680048 0.0041939192 0.078941897
0.57429534 0.0043549719 0.078783825
0.58060437 0.0033262272 0.078562431
0.58882254 0.0040304726 0.078425281
0.59600854 0.0041415342 0.078291178
0.60322142 0.0038225066 0.078150362
0.61124516 0.0040214029 0.078028187
0.61996478 0.0029423838 0.077842787
0.62681389 0.0041000047 0.077802673
0.63195276 0.0027108283 0.077682056
0.64069593 0.0034443405 0.077623375
0.64906758 0.004190044 0.077576213
0.65520459 0.0041637882 0.077529207
0.66260105 0.0033512616 0.077469453
0.67077142 0.0042579831 0.077440932
0.67771554 0.0036821223 0.077408664
0.50817126 0.011623557 0.080814712
0.51389414 0.012052048 0.080825478
0.52157432 0.011758795 0.08067704
0.52859396 0.011051058 0.080470629
0.53629655 0.011838536 0.080369085
0.54380691 0.012108897 0.080205232
0.55125207 0.012316653 0.080020897
0.55841571 0.012147368 0.079797484
0.5665592 0.012557109 0.07960353
0.57342607 0.010836627 0.07928028
0.58156341 0.010820077 0.079056583
0.5878011 0.011568508 0.078953274
0.59583908 0.011996214 0.07877212
0.60343689 0.011504607 0.078583531
0.61158001 0.011869439 0.078425832
0.61777174 0.012341897 0.078318752
0.62785649 0.011313604 0.078086324
0.63377553 0.012219934 0.078029402
0.64013577 0.013779835 0.078001648
0.657471 0.010104756 0.077687673
0.66366434 0.01046945 0.077642076
0.67086101 0.011846298 0.077608578
0.67759943 0.011189029 0.077538013
0.73276204 0.0092840595 0.077000834
0.734698 0.010884443 0.076936327
0.50741458 0.018920781 0.081706844
0.51330853 0.019806422 0.081745297
0.52047008 0.018783413 0.081479587
0.52888536 0.01917371 0.081319354
0.53626192 0.01971845 0.081164703
0.54366916 0.019391643 0.080897048
0.55147564 0.019068396 0.080610029
0.55849373 0.018819906 0.080356069
0.56607634 0.018897472 0.080106735
0.57371783 0.018796891 0.079860143
0.58054429 0.019905819 0.079716936
0.58856159 0.019952608 0.079465874
0.59548593 0.019557325 0.0792289
0.60366988 0.019496378 0.079002097
0.61086351 0.018939104 0.078798957
0.61875343 0.019317707 0.078623034
0.62726182 0.019665828 0.078461669
0.63412923 0.01835976 0.078273907
0.64122522 0.019073047 0.078186229
0.64788353 0.019854015 0.078096107
0.67240345 0.019195881 0.077732831
0.67673469 0.018765314 0.077669017
0.50801367 0.026044158 0.082538135
0.51354617 0.026424574 0.08249034
0.52160472 0.02746089 0.082409911
0.5288924 0.026620256 0.082092993
0.53604412 0.026703851 0.081862509
0.54361224 0.026925955 0.081599183
0.55122119 0.026765686 0.081290387
0.55851883 0.025943089 0.080935262
0.56613231 0.026437126 0.080692612
0.5729084 0.026724296 0.0804445
0.58121216 0.026958961 0.080165751
0.58851433 0.026494138 0.079873368
0.59549975 0.02707688 0.079664417
0.60359162 0.026552947 0.079385087
0.61232442 0.026668014 0.079137385
0.61841613 0.026019009 0.078960374
0.62591571 0.026974825 0.078805491
0.63357866 0.02621945 0.078588478
0.64159721 0.02563636 0.078396402
0.64848346 0.025690438 0.078266487
0.65428597 0.026402632 0.078181244
0.66489172 0.028611545 0.078003205
0.67078835 0.026278116 0.077858843
0.67649257 0.025596621 0.077737324
0.50753009 0.033975817 0.083444089
0.51432407 0.034285139 0.083325684
0.52111822 0.033902224 0.083088972
0.52872646 0.033935029 0.082833171
0.53610766 0.033784941 0.082535595
0.54366124 0.033810422 0.082225591
0.55110824 0.034292921 0.081938453
0.55870312 0.033766787 0.081570081
0.56621325 0.033865381 0.081249051
0.57359362 0.033378031 0.080894433
0.58095521 0.033603728 0.080605306
0.58885247 0.033790212 0.080321841
0.59572417 0.03421054 0.080081016
0.60408711 0.034686323 0.07980226
0.61093289 0.03384408 0.079545051
0.61894554 0.033315253 0.079269059
0.62644213 0.033567581 0.079046912
0.63381177 0.034089774 0.078859545
0.64039999 0.032995004 0.078658767
0.64849228 0.033649158 0.078478642
0.65609169 0.033635125 0.078294791
0.66323996 0.034684721 0.078120299
0.67117679 0.034263015 0.077926464
0.67538047 0.031787619 0.07780613
0.50737393 0.042251356 0.084380262
0.51329541 0.041337319 0.084117197
0.52121019 0.041804578 0.083906397
0.52873677 0.04148056 0.083571486
0.53638476 0.041197397 0.083222851
0.54310489 0.041701771 0.082954824
0.55128199 0.041348327 0.082543731
0.55881578 0.041485589 0.082183227
0.5657931 0.041194625 0.081799127
0.5735147 0.041515969 0.081470042
0.58090407 0.041348066 0.081115335
0.58841771 0.041476868 0.080789484
0.59654552 0.041073728 0.080434367
0.60373569 0.041075964 0.080151133
0.61113149 0.040648255 0.079847917
0.61885649 0.040686172 0.07956475
0.6256972 0.041291256 0.079350047
0.63424593 0.04156414 0.079093784
0.64221829 0.04065378 0.078826666
0.64809114 0.04096343 0.078650385
0.65580094 0.041329212 0.078424558
0.66395891 0.041735891 0.078176901
0.67123574 0.040975161 0.077967927
0.50756043 0.048415259 0.085036591
0.51471245 0.047223281 0.084698766
0.52101338 0.048407912 0.084565938
0.52926636 0.048775438 0.084257886
0.53608817 0.048460938 0.083908454
0.54376537 0.048936665 0.083561361
0.55154067 0.048005771 0.08307752
0.558864 0.049218982 0.082763374
0.56608331 0.048971612 0.082357846
0.57330483 0.048780445 0.081954464
0.5810408 0.049298987 0.081598416
0.58866322 0.048736688 0.081211582
0.59615976 0.048896879 0.080851339
0.60325742 0.048851695 0.080532685
0.61051232 0.049001545 0.080210544
0.61784315 0.048761308 0.079911873
0.62639689 0.049134992 0.079602063
0.6336453 0.048699275 0.07931865
0.64124298 0.048598014 0.079032131
0.64882851 0.048738346 0.078770086
0.65648574 0.048712321 0.078499004
0.66376764 0.049214084 0.078255095
0.67056978 0.04810695 0.078018703
0.50725663 0.056092463 0.085858539
0.51309061 0.055964071 0.085643038
0.52127331 0.056290314 0.085347697
0.52896214 0.057006773 0.085063227
0.5359199 0.056060921 0.084620588
0.54373533 0.056297969 0.084195092
0.55142027 0.056249429 0.083728962
0.55889004 0.056324318 0.08327838
0.5666638 0.055894524 0.082808934
0.57317472 0.055791955 0.082419716
0.58115757 0.05574188 0.081973851
0.58969468 0.056291528 0.081547312
0.59651393 0.056095488 0.081175275
0.60351253 0.056727111 0.080860928
0.61109161 0.056416348 0.080492765
0.61830002 0.05631344 0.080171682
0.62556207 0.05623962 0.079862721
0.63387728 0.055982262 0.079496115
0.64093292 0.056811862 0.079213426
0.64851928 0.055699464 0.078889884
0.65547293 0.056301139 0.078627273
0.66274762 0.056396715 0.07835412
0.67015982 0.056439836 0.078080907
0.50597417 0.063990712 0.086707942
0.5145815 0.064689487 0.086507104
0.52111602 0.063440263 0.086087011
0.52929044 0.06433285 0.085738778
0.53656656 0.06342338 0.08523602
0.54366559 0.063770667 0.084815644
0.55124515 0.064076096 0.084346376
0.55842894 0.064105995 0.083871737
0.56629694 0.063713722 0.083348267
0.57335347 0.063601971 0.082895607
0.58060849 0.063521378 0.082452573
0.58914053 0.063960895 0.081955433
0.59622359 0.063436896 0.081529222
0.60381603 0.063051581 0.081107348
0.61179972 0.063078098 0.080716319
0.61842692 0.063801579 0.080408528
0.62647855 0.064353287 0.0800438
0.63373607 0.064354517 0.079693705
0.64108735 0.064367861 0.079356357
0.64845288 0.063859507 0.079009593
0.65573698 0.063990839 0.078697965
0.66376644 0.063919745 0.078360766
0.66893262 0.063526861 0.078162707
0.50254911 0.071843781 0.087672964
0.50649399 0.071705021 0.087533131
0.51447356 0.07178849 0.087224714
0.52134913 0.071171261 0.086822726
0.52876163 0.071358591 0.086416379
0.53578871 0.071464099 0.085972309
0.54395419 0.071283884 0.085405491
0.55055928 0.071715288 0.084961638
0.55823606 0.0708514 0.08437153
0.56615371 0.071371362 0.083861038
0.57414585 0.071126007 0.083294213
0.58102083 0.071887955 0.082878858
0.58855164 0.071673676 0.082379632
0.59566814 0.07146965 0.081926443
0.60339999 0.071248032 0.081470869
0.61099052 0.072250955 0.081071891
0.6195733 0.071636431 0.080584146
0.62693977 0.070701458 0.080198579
0.63346052 0.070058748 0.079840913
0.64078611 0.070553355 0.07947664
0.64882219 0.070293233 0.079069637
0.65637469 0.069956116 0.078719966
0.6631977 0.071530521 0.078414463
0.66914129 0.070851997 0.078134067
0.50080979 0.079602353 0.08853852
0.50697911 0.08002679 0.08839491
0.51419342 0.079294175 0.087984972
0.52135473 0.078508422 0.087523602
0.52824628 0.078648522 0.0870893
0.53617543 0.078694955 0.086528212
0.544002 0.078768171 0.085957929
0.55098587 0.07848379 0.085423313
0.55893248 0.078662112 0.084836811
0.56587714 0.078654431 0.084315181
0.57451153 0.078248389 0.08365345
0.58149844 0.07886149 0.083189212
0.58821237 0.078144044 0.082700387
0.59603685 0.078796737 0.082218841
0.60304141 0.078837104 0.081784621
0.61057431 0.079644755 0.081338421
0.61890596 0.078446828 0.080810763
0.62677824 0.078201391 0.080356717
0.63414174 0.078615114 0.079966567
0.64085042 0.078611076 0.079589821
0.50041986 0.086489819 0.089301445
0.50714713 0.086254202 0.089011848
0.51371533 0.085680671 0.088624179
0.52117622 0.085907429 0.088176772
0.52857292 0.086410567 0.087705091
0.53557396 0.086394697 0.087186247
0.54432642 0.086188197 0.086491197
0.55162728 0.085826829 0.085899718
0.55845451 0.086316533 0.085374504
0.56535679 0.086244367 0.084795758
0.57327306 0.086011641 0.084160954
0.58107066 0.086091034 0.083566077
0.58826387 0.086560905 0.08307419
0.59556228 0.085761152 0.082527049
0.60333693 0.086212084 0.08201392
0.61094838 0.08614862 0.081515767
0.6185534 0.086231619 0.081029452
0.62546122 0.086726069 0.080606207
0.63337803 0.087155461 0.080132604
0.64004338 0.085682079 0.079730272
0.65718621 0.086221397 0.07870692
0.66204858 0.086417004 0.078419104
0.49989772 0.093354523 0.090002522
0.50671113 0.093526162 0.089716181
0.51337105 0.093371987 0.08931601
0.52106583 0.093407542 0.088810347
0.52900618 0.092880018 0.088182457
0.53610903 0.093095489 0.087669179
0.54434735 0.094467878 0.087088615
0.5508526 0.093323238 0.086457819
0.55820382 0.094265029 0.08589682
0.56599188 0.093329154 0.085168146
0.57334685 0.093865268 0.084581017
0.58163673 0.093904696 0.083914816
0.58895588 0.094084255 0.083344541
0.59594929 0.093847759 0.082800269
0.60239291 0.093616046 0.08231391
0.6105994 0.093751535 0.081734814
0.61892074 0.093200773 0.081152663
0.62632078 0.093686812 0.080657966
0.63374096 0.093621589 0.080171779
0.64015275 0.095230363 0.079758599
0.64892131 0.094817623 0.079185329
0.65639919 0.093774751 0.078705199
0.67904073 0.093428254 0.077246442
0.68294215 0.094900548 0.076935321
0.49883682 0.10019614 0.090664148
0.50605959 0.10126591 0.090440549
0.51471037 0.10147978 0.08993312
0.52163512 0.10106188 0.089424558
0.52911282 0.10109753 0.088845715
0.5367192 0.10076647 0.088198692
0.54325455 0.10127909 0.087657534
0.55140692 0.10112915 0.086919375
0.55905449 0.1008987 0.086226888
0.56622899 0.10082426 0.085582651
0.57347423 0.10129667 0.084962927
0.58071119 0.101459 0.084346473
0.58876824 0.10106217 0.083635189
0.59563297 0.10126022 0.083079204
0.60326213 0.10117995 0.082463458
0.61045372 0.10130347 0.081929669
0.61867213 0.10109414 0.08130917
0.62632149 0.10137636 0.080752619
0.63340431 0.10028103 0.080239646
0.64053875 0.10124516 0.079739176
0.64869153 0.10140671 0.079145662
0.65564978 0.10174925 0.078660667
0.66278291 0.10392746 0.078102365
0.50178057 0.10894545 0.091330141
0.50674534 0.10857026 0.091045454
0.51440781 0.10827792 0.090549506
0.52145499 0.10850641 0.0900518
0.52829641 0.1089927 0.089516595
0.5361827 0.10873853 0.088800885
0.54352951 0.10895254 0.088150665
0.55094713 0.10815759 0.087407351
0.55896014 0.10850269 0.086684987
0.5665338 0.10921147 0.086001277
0.57368976 0.10849635 0.085290983
0.581029 0.10947606 0.084646568
0.58857578 0.10873047 0.08392638
0.59596652 0.10842675 0.083273828
0.60349482 0.10890033 0.082637161
0.61041898 0.10853363 0.082062766
0.61894983 0.10904209 0.081387229
0.62573773 0.10877534 0.080850035
0.63334519 0.10926445 0.080240794
0.64122224 0.10820544 0.079630412
0.64984673 0.10876609 0.078970902
0.65698695 0.10868976 0.078448869
0.66324973 0.10804162 0.077999718
0.66823894 0.10883762 0.077605978
0.49384156 0.11608079 0.092206232
0.50005805 0.11683104 0.092045337
0.50642449 0.11647811 0.091711365
0.51421165 0.11584448 0.091153003
0.5213694 0.11644853 0.090671763
0.52917522 0.11596728 0.089933597
0.53671229 0.11602102 0.089249462
0.54334885 0.11551048 0.088594027
0.55099082 0.11651913 0.08790388
0.55886096 0.11570717 0.087083884
0.56616497 0.1163706 0.08638557
0.57375729 0.11635605 0.085616015
0.58102465 0.11607448 0.08489684
0.5882166 0.11647874 0.084224448
0.59640908 0.11620925 0.083435394
0.60306889 0.1158176 0.082821988
0.61087328 0.11568467 0.082124248
0.61841261 0.11581196 0.081483968
0.62601686 0.11590102 0.08081945
0.63334161 0.11652584 0.080190904
0.63964266 0.11694636 0.079654977
0.64834946 0.11540266 0.078992583
0.65434462 0.11378158 0.078550488
0.49963793 0.1238385 0.092677705
0.50595504 0.12332157 0.092275016
0.51442236 0.12381238 0.09171968
0.52145368 0.12377641 0.091144294
0.52835649 0.1226341 0.090474926
0.53622204 0.12351648 0.089776099
0.5446986 0.12251515 0.088891588
0.55113864 0.1245985 0.088318467
0.55887371 0.12403136 0.087488733
0.56691825 0.12380836 0.086629868
0.57306373 0.12388769 0.085979529
0.58145547 0.12297586 0.085072622
0.58853281 0.12399279 0.084375791
0.59624159 0.12378073 0.083613165
0.60374159 0.12407095 0.082900159
0.6108166 0.12378665 0.082212277
0.61828727 0.12373612 0.081486464
0.62498206 0.12338618 0.080867201
0.63322514 0.12356001 0.080159619
0.63987994 0.12355463 0.079574473
0.64700574 0.12311041 0.078964606
0.49542519 0.13174473 0.093510687
0.49981633 0.13120712 0.093265221
0.50594068 0.13134441 0.092902876
0.51653266 0.12966368 0.09197621
0.52154338 0.13071127 0.091613367
0.52900612 0.13131262 0.090947472
0.53644538 0.13202421 0.090237655
0.54422241 0.13089244 0.089363433
0.55151635 0.13067593 0.088572264
0.55855656 0.13117696 0.087806024
0.5664714 0.13108483 0.08693821
0.57375675 0.13158706 0.086158402
0.58136898 0.13098371 0.085294425
0.58752656 0.13108404 0.084629662
0.59586716 0.13082986 0.083768956
0.60349077 0.13169408 0.082972728
0.61098617 0.13104868 0.082199469
0.61850631 0.13145289 0.08143045
0.62613201 0.13141751 0.080716126
0.63310456 0.13056159 0.080078766
0.64062369 0.13131125 0.079357915
0.64735138 0.13024876 0.07877554
0.65801704 0.1300519 0.077797294
0.66096997 0.13039868 0.077495344
0.49349883 0.13908024 0.0941903
0.49991077 0.13861178 0.09384492
0.50416738 0.13979746 0.09365233
0.51687974 0.13507055 0.092323408
0.52076763 0.14037554 0.092313379
0.52957034 0.13901283 0.091333337
0.53673738 0.13857304 0.09053909
0.54410821 0.13794552 0.08971528
0.55288237 0.13861071 0.088765167
0.5588783 0.13884863 0.088086091
0.56621045 0.13918626 0.087240621
0.57360464 0.13870287 0.086345084
0.58108217 0.13871872 0.085494518
0.58890158 0.13865203 0.084616065
0.59584093 0.13877867 0.083853386
0.60307419 0.13803251 0.083052412
0.61043686 0.13925065 0.082245342
0.6184724 0.13845643 0.081419013
0.6254707 0.13887005 0.080700174
0.63416195 0.13830678 0.079841234
0.64036858 0.1391625 0.079203568
0.64743882 0.13880432 0.078511029
0.49268714 0.14630081 0.094799869
0.49890226 0.14555313 0.094433241
0.52825177 0.14563856 0.091869645
0.5370158 0.14686497 0.090946518
0.54347044 0.14614928 0.090176508
0.55098855 0.14627458 0.089294262
0.55933505 0.14647874 0.088302501
0.56632817 0.14676765 0.087450549
0.5745554 0.14618312 0.086425789
0.58111817 0.14611243 0.085644856
0.58843619 0.14607021 0.084761553
0.59593773 0.14668705 0.083884627
0.60317463 0.14648379 0.083035216
0.61122149 0.14601924 0.082142092
0.61787623 0.14599521 0.081420735
0.62529874 0.1457098 0.080612555
0.63297349 0.14602457 0.079782724
0.64075053 0.14407931 0.07901334
0.64729476 0.14419203 0.078321181
0.65205234 0.14515737 0.077773675
0.48657888 0.1562252 0.095915176
0.49004006 0.15276423 0.095474124
0.49649698 0.15025002 0.094914392
0.52823365 0.15042277 0.092123538
0.53737646 0.15517539 0.091304153
0.54416752 0.15453924 0.090449393
0.55104953 0.15392651 0.089568332
0.55915952 0.15338868 0.088531673
0.56665927 0.15372698 0.087566845
0.57408983 0.15352739 0.086651646
0.58051306 0.15324472 0.08584334
0.5881353 0.15376592 0.084877796
0.59560621 0.1531733 0.083925605
0.60349655 0.15349455 0.083006971
0.61009562 0.15310875 0.082237147
0.61819994 0.15292615 0.081270628
0.62569582 0.15344779 0.080397673
0.63345665 0.15385178 0.079505011
0.63984144 0.15388608 0.078746833
0.48569107 0.16154511 0.096385896
0.48884901 0.15901983 0.096051671
0.53778213 0.1604746 0.091495387
0.54358774 0.16078256 0.090765245
0.55172884 0.16067305 0.089703821
0.55901796 0.16077882 0.088730022
0.56599027 0.16029446 0.087820821
0.57387632 0.16141888 0.086795457
0.58109051 0.16071254 0.085818551
0.58879018 0.16200323 0.084823407
0.59582484 0.16149713 0.083934791
0.60289699 0.16093585 0.083025508
0.61068374 0.1604418 0.082070343
0.61817455 0.1606648 0.081123941
0.62470561 0.16121934 0.080300711
0.63260198 0.1611267 0.07930471
0.64037979 0.1605657 0.078377448
0.48072487 0.17131373 0.097364724
0.4821139 0.16757345 0.097005405
0.54498327 0.1688069 0.090834878
0.5515759 0.16838828 0.089923501
0.55936027 0.16914999 0.088886023
0.56661671 0.16850668 0.087856993
0.57373649 0.16898426 0.086851113
0.58157307 0.16867162 0.08578071
0.5882892 0.16907492 0.084906742
0.59624559 0.16857755 0.083839476
0.60302824 0.1688122 0.082925357
0.60972434 0.16768815 0.082061172
0.61798114 0.16831052 0.080942243
0.62663764 0.16898516 0.079765484
0.63396919 0.16812764 0.078839332
0.63988847 0.1695126 0.077992477
0.54516429 0.17646046 0.091029771
0.55173165 0.1763358 0.090079382
0.55859619 0.17694798 0.089104883
0.56621027 0.17637427 0.087994553
0.57368505 0.17598514 0.086903691
0.58069599 0.17642911 0.085935384
0.58786476 0.17606564 0.084947124
0.59557527 0.1765414 0.083847493
0.6031906 0.17593908 0.082779154
0.61138111 0.17574844 0.081616729
0.61790979 0.17626229 0.080672018
0.62508684 0.17606401 0.079668179
0.63286245 0.17575394 0.0786044
0.63853753 0.17293236 0.077983767
0.47088033 0.18425204 0.098704502
0.53794301 0.18417048 0.092204966
0.54464763 0.18360499 0.091261037
0.55194396 0.1839311 0.090177253
0.55936158 0.18334402 0.089048222
0.56660002 0.18404222 0.087995835
0.57451504 0.18282992 0.086840071
0.58164507 0.18342142 0.085793026
0.58834398 0.18394616 0.084786713
0.59592092 0.18389374 0.083671108
0.60225874 0.18291609 0.08274439
0.61094564 0.18401754 0.081395589
0.61872709 0.18325217 0.080259331
0.6245544 0.18363298 0.079370461
0.63244206 0.18284522 0.078271233
0.53912449 0.19022751 0.092180073
0.54399669 0.19064415 0.091423966
0.55178887 0.19075149 0.090234526
0.55951607 0.19073436 0.089083746
0.56628531 0.19075805 0.088058673
0.57413393 0.19110246 0.086861402
0.58139962 0.19084609 0.08574155
0.58817595 0.190962 0.08469063
0.59553838 0.1912951 0.083531678
0.60265452 0.19106738 0.082415126
0.6107356 0.18988603 0.081193671
0.61810392 0.19128889 0.079944618
0.62589043 0.19049191 0.078773111
0.63186598 0.19007143 0.077879302
0.53832352 0.19887583 0.092349999
0.54534876 0.19913396 0.091255769
0.55214572 0.19939938 0.090203814
0.55906165 0.19883263 0.089143373
0.5662719 0.19811293 0.088018656
0.5735383 0.19953202 0.086844444
0.58108455 0.19828704 0.085641116
0.58847797 0.19848239 0.084448829
0.59612334 0.19768424 0.083217099
0.60375601 0.19900653 0.081886135
0.61092764 0.1977849 0.080765598
0.61766541 0.1984116 0.079601318
0.62535214 0.1981422 0.078349985
0.63160092 0.1970142 0.07741002
0.5375073 0.20666297 0.092464998
0.54391032 0.20702256 0.09145996
0.55280048 0.20756559 0.090059511
0.55940819 0.20668326 0.089019626
0.56660366 0.20643818 0.087845698
0.5735274 0.20628317 0.086702466
0.58120352 0.20606938 0.085407026
0.58893651 0.20578906 0.084087528
0.59526002 0.20556337 0.083001986
0.60249668 0.20595913 0.081720643
0.61115539 0.20579958 0.08022882
0.61785769 0.20567346 0.079074152
0.62499142 0.20439062 0.077937864
0.53002906 0.21454249 0.093626536
0.53751731 0.21442385 0.092449918
0.54401636 0.21425945 0.091417626
0.55176765 0.21417333 0.090157822
0.55837858 0.21394289 0.089067727
0.56640959 0.21384066 0.087721132
0.57449108 0.21399832 0.086307503
0.58025455 0.21351974 0.085283093
0.58811164 0.21363661 0.083849497
0.59501678 0.21345183 0.082598135
0.60219085 0.21353659 0.081292383
0.60984981 0.2129129 0.079955585
0.61611563 0.21398984 0.078710198
0.52949047 0.22139502 0.093664631
0.53667635 0.22126196 0.09254308
0.54516929 0.22194257 0.091148898
0.55201739 0.22121882 0.089997947
0.55855376 0.22125787 0.088876978
0.56671733 0.22108619 0.087448508
0.57443649 0.22091159 0.086031295
0.58111608 0.22088712 0.084768906
0.58869219 0.22071612 0.08334776
0.59494728 0.2210512 0.08210057
0.60332942 0.22105847 0.080525294
0.61101854 0.22006153 0.079146184
0.61638165 0.21959841 0.078170173
0.52868962 0.22807935 0.093734786
0.5371893 0.2286315 0.092369623
0.54504693 0.22932273 0.091016121
0.55212539 0.22822085 0.089797229
0.55981064 0.22890621 0.088383779
0.56691909 0.22845291 0.087068386
0.57395762 0.22875348 0.085701123
0.58083618 0.22871104 0.084358118
0.58844447 0.22803012 0.082896613
0.59605002 0.22835536 0.081355713
